# .PCD v0.7 - Point Cloud Data file format
VERSION 0.7
FIELDS x y z
SIZE 4 4 4
TYPE F F F
COUNT 1 1 1
WIDTH 1401
HEIGHT 1
VIEWPOINT 0 0 0 1 0 0 0
POINTS 1401
DATA ascii
-0.084316976 0.3978861 0.97300005
-0.083507225 0.39829504 0.97400004
-0.082695626 0.39870399 0.97500002
-0.081882194 0.39911288 0.97600007
-0.1446117 0.39959934 0.97500002
-0.14341956 0.39877963 0.97300005
-0.1423776 0.39836979 0.97200006
-0.14075522 0.39632058 0.96700007
-0.1397206 0.39591071 0.96600002
-0.13883156 0.39591071 0.96600002
-0.13737132 0.39427134 0.96200007
-0.13634408 0.3938615 0.96100003
-0.13503675 0.39263195 0.95800006
-0.13401502 0.39222211 0.95700002
-0.13313426 0.39222211 0.95700002
-0.1321153 0.39181226 0.95600003
-0.13109818 0.39140239 0.95500004
-0.13021925 0.39140239 0.95500004
-0.12947576 0.39181226 0.95600003
-0.1285959 0.39181226 0.95600003
-0.12771606 0.39181226 0.95600003
-0.12670355 0.39140239 0.95500004
-0.12582462 0.39140239 0.95500004
-0.12481485 0.39099258 0.95400006
-0.12393685 0.39099258 0.95400006
-0.12305884 0.39099258 0.95400006
-0.12218083 0.39099258 0.95400006
-0.12130282 0.39099258 0.95400006
-0.12042481 0.39099258 0.95400006
-0.11967212 0.39140239 0.95500004
-0.11866879 0.39099258 0.95400006
-0.11779079 0.39099258 0.95400006
-0.11679023 0.39058271 0.95300007
-0.11579151 0.3901729 0.95200002
-0.11479464 0.38976303 0.95100003
-0.1137996 0.38935319 0.95000005
-0.11280641 0.38894334 0.94900006
-0.11193301 0.38894334 0.94900006
-0.1110596 0.38894334 0.94900006
-0.1101862 0.38894334 0.94900006
-0.10931279 0.38894334 0.94900006
-0.10855365 0.38935319 0.95000005
-0.10767932 0.38935319 0.95000005
-0.10702985 0.3901729 0.95200002
-0.10626519 0.39058271 0.95300007
-0.10549869 0.39099258 0.95400006
-0.10473035 0.39140239 0.95500004
-0.10385142 0.39140239 0.95500004
-0.1029725 0.39140239 0.95500004
-0.10198666 0.39099258 0.95400006
-0.10121464 0.39140239 0.95500004
-0.10033572 0.39140239 0.95500004
-0.099456787 0.39140239 0.95500004
-0.098681085 0.39181226 0.95600003
-0.097903535 0.39222211 0.95700002
-0.097022764 0.39222211 0.95700002
-0.096242458 0.39263195 0.95800006
-0.095360771 0.39263195 0.95800006
-0.0945777 0.39304182 0.95900005
-0.093695097 0.39304182 0.95900005
-0.092812486 0.39304182 0.95900005
-0.091834016 0.39263195 0.95800006
-0.091047265 0.39304182 0.95900005
-0.09025868 0.39345166 0.96000004
-0.089375146 0.39345166 0.96000004
-0.088860333 0.39509103 0.96400005
-0.087973118 0.39509103 0.96400005
-0.087176248 0.3955009 0.96500003
-0.086556375 0.39673039 0.96800005
-0.085753977 0.39714026 0.96900004
-0.084862165 0.39714026 0.96900004
-0.084230326 0.39836979 0.97200006
-0.083421484 0.39877963 0.97300005
-0.082610808 0.3991895 0.97400004
-0.081714392 0.3991895 0.97400004
-0.14312477 0.39885163 0.97100008
-0.14193815 0.3980301 0.96900004
-0.14075522 0.3972086 0.96700007
-0.1397206 0.39679781 0.96600002
-0.13883156 0.39679781 0.96600002
-0.13737132 0.39515477 0.96200007
-0.13634408 0.39474401 0.96100003
-0.13503675 0.39351171 0.95800006
-0.13415506 0.39351171 0.95800006
-0.13313426 0.39310095 0.95700002
-0.1321153 0.39269018 0.95600003
-0.13109818 0.39227939 0.95500004
-0.13021925 0.39227939 0.95500004
-0.12947576 0.39269018 0.95600003
-0.1285959 0.39269018 0.95600003
-0.12771606 0.39269018 0.95600003
-0.12670355 0.39227939 0.95500004
-0.12582462 0.39227939 0.95500004
-0.12481485 0.39186865 0.95400006
-0.12380693 0.39145789 0.95300007
-0.12292985 0.39145789 0.95300007
-0.12205276 0.39145789 0.95300007
-0.12130282 0.39186865 0.95400006
-0.12042481 0.39186865 0.95400006
-0.1195468 0.39186865 0.95400006
-0.11879319 0.39227939 0.95500004
-0.11791427 0.39227939 0.95500004
-0.11679023 0.39145789 0.95300007
-0.11579151 0.39104712 0.95200002
-0.11479464 0.39063635 0.95100003
-0.1137996 0.39022559 0.95000005
-0.11292528 0.39022559 0.95000005
-0.11193301 0.38981482 0.94900006
-0.1110596 0.38981482 0.94900006
-0.1101862 0.38981482 0.94900006
-0.10942797 0.39022559 0.95000005
-0.10855365 0.39022559 0.95000005
-0.10779267 0.39063635 0.95100003
-0.10714228 0.39145789 0.95300007
-0.10626519 0.39145789 0.95300007
-0.10549869 0.39186865 0.95400006
-0.10473035 0.39227939 0.95500004
-0.10385142 0.39227939 0.95500004
-0.10286467 0.39186865 0.95400006
-0.10198666 0.39186865 0.95400006
-0.10121464 0.39227939 0.95500004
-0.10033572 0.39227939 0.95500004
-0.099456787 0.39227939 0.95500004
-0.098681085 0.39269018 0.95600003
-0.097801231 0.39269018 0.95600003
-0.097022764 0.39310095 0.95700002
-0.096142001 0.39310095 0.95700002
-0.095261231 0.39310095 0.95700002
-0.094380461 0.39310095 0.95700002
-0.093499698 0.39310095 0.95700002
-0.092618927 0.39310095 0.95700002
-0.091738157 0.39310095 0.95700002
-0.090952329 0.39351171 0.95800006
-0.090070643 0.39351171 0.95800006
-0.089188948 0.39351171 0.95800006
-0.088675976 0.39515477 0.96200007
-0.087881863 0.39556551 0.96300006
-0.08708591 0.39597631 0.96400005
-0.086466961 0.3972086 0.96700007
-0.085665487 0.39761934 0.96800005
-0.084862165 0.3980301 0.96900004
-0.084230326 0.3992624 0.97200006
-0.083421484 0.39967316 0.97300005
-0.082525991 0.39967316 0.97300005
-0.14312477 0.39974332 0.97100008
-0.14193815 0.39891997 0.96900004
-0.14075522 0.39809659 0.96700007
-0.1397206 0.3976849 0.96600002
-0.13883156 0.3976849 0.96600002
-0.13765691 0.39686155 0.96400005
-0.13648595 0.3960382 0.96200007
-0.13560058 0.3960382 0.96200007
-0.13415506 0.39439145 0.95800006
-0.13327338 0.39439145 0.95800006
-0.1321153 0.3935681 0.95600003
-0.13109818 0.39315641 0.95500004
-0.13021925 0.39315641 0.95500004
-0.12947576 0.3935681 0.95600003
-0.1285959 0.3935681 0.95600003
-0.12771606 0.3935681 0.95600003
-0.12670355 0.39315641 0.95500004
-0.12582462 0.39315641 0.95500004
-0.12481485 0.39274472 0.95400006
-0.12380693 0.39233303 0.95300007
-0.12292985 0.39233303 0.95300007
-0.12218083 0.39274472 0.95400006
-0.12130282 0.39274472 0.95400006
-0.12042481 0.39274472 0.95400006
-0.1195468 0.39274472 0.95400006
-0.11879319 0.39315641 0.95500004
-0.11791427 0.39315641 0.95500004
-0.11679023 0.39233303 0.95300007
-0.11579151 0.39192137 0.95200002
-0.11491535 0.39192137 0.95200002
-0.1137996 0.39109799 0.95000005
-0.11292528 0.39109799 0.95000005
-0.11193301 0.39068633 0.94900006
-0.1110596 0.39068633 0.94900006
-0.1101862 0.39068633 0.94900006
-0.10942797 0.39109799 0.95000005
-0.10855365 0.39109799 0.95000005
-0.10779267 0.39150968 0.95100003
-0.10714228 0.39233303 0.95300007
-0.10637669 0.39274472 0.95400006
-0.10549869 0.39274472 0.95400006
-0.10473035 0.39315641 0.95500004
-0.10385142 0.39315641 0.95500004
-0.10286467 0.39274472 0.95400006
-0.10198666 0.39274472 0.95400006
-0.10121464 0.39315641 0.95500004
-0.10033572 0.39315641 0.95500004
-0.099456787 0.39315641 0.95500004
-0.098681085 0.3935681 0.95600003
-0.097801231 0.3935681 0.95600003
-0.097022764 0.39397979 0.95700002
-0.096142001 0.39397979 0.95700002
-0.095261231 0.39397979 0.95700002
-0.094380461 0.39397979 0.95700002
-0.093499698 0.39397979 0.95700002
-0.092618927 0.39397979 0.95700002
-0.091738157 0.39397979 0.95700002
-0.090952329 0.39439145 0.95800006
-0.090070643 0.39439145 0.95800006
-0.089188948 0.39439145 0.95800006
-0.088583797 0.39562649 0.96100003
-0.087790608 0.3960382 0.96200007
-0.086995572 0.39644986 0.96300006
-0.086377539 0.3976849 0.96600002
-0.085576989 0.39809659 0.96700007
-0.084774591 0.39850828 0.96800005
-0.084143668 0.39974332 0.97100008
-0.083250016 0.39974332 0.97100008
-0.14282995 0.39980981 0.96900004
-0.14164519 0.39898461 0.96700007
-0.1404641 0.39815941 0.96500003
-0.13957597 0.39815941 0.96500003
-0.13868785 0.39815941 0.96500003
-0.13737132 0.3969216 0.96200007
-0.13634408 0.39650899 0.96100003
-0.13517772 0.3956838 0.95900005
-0.13429511 0.3956838 0.95900005
-0.13313426 0.3948586 0.95700002
-0.1321153 0.39444602 0.95600003
-0.13109818 0.3940334 0.95500004
-0.13021925 0.3940334 0.95500004
-0.12934032 0.3940334 0.95500004
-0.12846139 0.3940334 0.95500004
-0.12758246 0.3940334 0.95500004
-0.12657087 0.39362082 0.95400006
-0.12569286 0.39362082 0.95400006
-0.12481485 0.39362082 0.95400006
-0.12380693 0.39320821 0.95300007
-0.12292985 0.39320821 0.95300007
-0.12205276 0.39320821 0.95300007
-0.12117567 0.39320821 0.95300007
-0.12029858 0.39320821 0.95300007
-0.1195468 0.39362082 0.95400006
-0.11866879 0.39362082 0.95400006
-0.11779079 0.39362082 0.95400006
-0.11679023 0.39320821 0.95300007
-0.11591315 0.39320821 0.95300007
-0.11491535 0.39279562 0.95200002
-0.11391939 0.39238301 0.95100003
-0.11292528 0.3919704 0.95000005
-0.11205095 0.3919704 0.95000005
-0.11117662 0.3919704 0.95000005
-0.1101862 0.39155781 0.94900006
-0.10942797 0.3919704 0.95000005
-0.10866792 0.39238301 0.95100003
-0.10779267 0.39238301 0.95100003
-0.10714228 0.39320821 0.95300007
-0.10637669 0.39362082 0.95400006
-0.10549869 0.39362082 0.95400006
-0.10473035 0.3940334 0.95500004
-0.10374267 0.39362082 0.95400006
-0.1029725 0.3940334 0.95500004
-0.10209357 0.3940334 0.95500004
-0.10121464 0.3940334 0.95500004
-0.10033572 0.3940334 0.95500004
-0.099456787 0.3940334 0.95500004
-0.098681085 0.39444602 0.95600003
-0.097801231 0.39444602 0.95600003
-0.097022764 0.3948586 0.95700002
-0.096142001 0.3948586 0.95700002
-0.095261231 0.3948586 0.95700002
-0.094380461 0.3948586 0.95700002
-0.093499698 0.3948586 0.95700002
-0.092522144 0.39444602 0.95600003
-0.091738157 0.3948586 0.95700002
-0.090952329 0.39527118 0.95800006
-0.090164661 0.3956838 0.95900005
-0.089282051 0.3956838 0.95900005
-0.088583797 0.39650899 0.96100003
-0.087790608 0.3969216 0.96200007
-0.086995572 0.39733419 0.96300006
-0.086377539 0.398572 0.96600002
-0.085576989 0.39898461 0.96700007
-0.084774591 0.39939719 0.96800005
-0.14164519 0.39987263 0.96700007
-0.14031854 0.39863208 0.96400005
-0.13943134 0.39863208 0.96400005
-0.13854413 0.39863208 0.96400005
-0.13737132 0.39780504 0.96200007
-0.13634408 0.3973915 0.96100003
-0.13517772 0.39656448 0.95900005
-0.13415506 0.39615095 0.95800006
-0.13313426 0.39573744 0.95700002
-0.1321153 0.3953239 0.95600003
-0.13109818 0.3949104 0.95500004
-0.13021925 0.3949104 0.95500004
-0.12934032 0.3949104 0.95500004
-0.12846139 0.3949104 0.95500004
-0.12758246 0.3949104 0.95500004
-0.12657087 0.39449689 0.95400006
-0.12569286 0.39449689 0.95400006
-0.12481485 0.39449689 0.95400006
-0.12380693 0.39408335 0.95300007
-0.12292985 0.39408335 0.95300007
-0.12205276 0.39408335 0.95300007
-0.12117567 0.39408335 0.95300007
-0.12029858 0.39408335 0.95300007
-0.11942149 0.39408335 0.95300007
-0.11854441 0.39408335 0.95300007
-0.11779079 0.39449689 0.95400006
-0.11679023 0.39408335 0.95300007
-0.11579151 0.39366984 0.95200002
-0.11491535 0.39366984 0.95200002
-0.11391939 0.39325631 0.95100003
-0.11292528 0.3928428 0.95000005
-0.11205095 0.3928428 0.95000005
-0.11117662 0.3928428 0.95000005
-0.1101862 0.39242929 0.94900006
-0.10942797 0.3928428 0.95000005
-0.10855365 0.3928428 0.95000005
-0.10779267 0.39325631 0.95100003
-0.10714228 0.39408335 0.95300007
-0.10626519 0.39408335 0.95300007
-0.10549869 0.39449689 0.95400006
-0.10462068 0.39449689 0.95400006
-0.10374267 0.39449689 0.95400006
-0.10286467 0.39449689 0.95400006
-0.10198666 0.39449689 0.95400006
-0.10110865 0.39449689 0.95400006
-0.10033572 0.3949104 0.95500004
-0.099456787 0.3949104 0.95500004
-0.098577857 0.3949104 0.95500004
-0.097698934 0.3949104 0.95500004
-0.096820004 0.3949104 0.95500004
-0.095941074 0.3949104 0.95500004
-0.095062152 0.3949104 0.95500004
-0.094183221 0.3949104 0.95500004
-0.093304291 0.3949104 0.95500004
-0.092425369 0.3949104 0.95500004
-0.091738157 0.39573744 0.95700002
-0.090952329 0.39615095 0.95800006
-0.090070643 0.39615095 0.95800006
-0.089188948 0.39615095 0.95800006
-0.088583797 0.3973915 0.96100003
-0.087790608 0.39780504 0.96200007
-0.086995572 0.39821854 0.96300006
-0.086377539 0.39945909 0.96600002
-0.085576989 0.39987263 0.96700007
-0.050236844 0.3949104 0.95500004
-0.14031854 0.39951733 0.96400005
-0.13943134 0.39951733 0.96400005
-0.13825668 0.39868847 0.96200007
-0.13722852 0.398274 0.96100003
-0.1362022 0.3978596 0.96000004
-0.13503675 0.39703068 0.95800006
-0.13401502 0.39661628 0.95700002
-0.13313426 0.39661628 0.95700002
-0.13197711 0.39578739 0.95500004
-0.13109818 0.39578739 0.95500004
-0.13008289 0.39537296 0.95400006
-0.12920488 0.39537296 0.95400006
-0.12846139 0.39578739 0.95500004
-0.12744887 0.39537296 0.95400006
-0.12657087 0.39537296 0.95400006
-0.12569286 0.39537296 0.95400006
-0.12468402 0.3949585 0.95300007
-0.12380693 0.3949585 0.95300007
-0.12292985 0.3949585 0.95300007
-0.12192468 0.39454409 0.95200002
-0.12104852 0.39454409 0.95200002
-0.12017234 0.39454409 0.95200002
-0.11942149 0.3949585 0.95300007
-0.11854441 0.3949585 0.95300007
-0.11766732 0.3949585 0.95300007
-0.11679023 0.3949585 0.95300007
-0.11579151 0.39454409 0.95200002
-0.11491535 0.39454409 0.95200002
-0.11391939 0.39412963 0.95100003
-0.11292528 0.3937152 0.95000005
-0.11205095 0.3937152 0.95000005
-0.11117662 0.3937152 0.95000005
-0.1101862 0.39330077 0.94900006
-0.10942797 0.3937152 0.95000005
-0.10855365 0.3937152 0.95000005
-0.10779267 0.39412963 0.95100003
-0.10702985 0.39454409 0.95200002
-0.10626519 0.3949585 0.95300007
-0.10527752 0.39454409 0.95200002
-0.10451102 0.3949585 0.95300007
-0.10363393 0.3949585 0.95300007
-0.10275684 0.3949585 0.95300007
-0.10187975 0.3949585 0.95300007
-0.10110865 0.39537296 0.95400006
-0.10023064 0.39537296 0.95400006
-0.099352635 0.39537296 0.95400006
-0.098577857 0.39578739 0.95500004
-0.097698934 0.39578739 0.95500004
-0.096820004 0.39578739 0.95500004
-0.095941074 0.39578739 0.95500004
-0.095062152 0.39578739 0.95500004
-0.094183221 0.39578739 0.95500004
-0.093304291 0.39578739 0.95500004
-0.092425369 0.39578739 0.95500004
-0.091642298 0.39620182 0.95600003
-0.090857387 0.39661628 0.95700002
-0.090070643 0.39703068 0.95800006
-0.089188948 0.39703068 0.95800006
-0.088583797 0.398274 0.96100003
-0.087790608 0.39868847 0.96200007
-0.086995572 0.39910287 0.96300006
-0.053150453 0.3978596 0.96000004
-0.052266922 0.3978596 0.96000004
-0.051436916 0.398274 0.96100003
-0.050236844 0.39578739 0.95500004
-0.14194557 0.39998722 0.96300006
-0.1409128 0.39957187 0.96200007
-0.13973631 0.39874119 0.96000004
-0.13885279 0.39874119 0.96000004
-0.13782553 0.3983258 0.95900005
-0.13694292 0.3983258 0.95900005
-0.13591844 0.39791045 0.95800006
-0.1348958 0.39749509 0.95700002
-0.133875 0.39707974 0.95600003
-0.13299514 0.39707974 0.95600003
-0.1318389 0.39624903 0.95400006
-0.1309609 0.39624903 0.95400006
-0.12994654 0.39583367 0.95300007
-0.12906945 0.39583367 0.95300007
-0.12819237 0.39583367 0.95300007
-0.12731528 0.39583367 0.95300007
-0.12643819 0.39583367 0.95300007
-0.1255611 0.39583367 0.95300007
-0.12468402 0.39583367 0.95300007
-0.12367702 0.39541832 0.95200002
-0.12280086 0.39541832 0.95200002
-0.12192468 0.39541832 0.95200002
-0.12104852 0.39541832 0.95200002
-0.12017234 0.39541832 0.95200002
-0.11929618 0.39541832 0.95200002
-0.11854441 0.39583367 0.95300007
-0.11766732 0.39583367 0.95300007
-0.11679023 0.39583367 0.95300007
-0.11591315 0.39583367 0.95300007
-0.11503606 0.39583367 0.95300007
-0.11403918 0.39541832 0.95200002
-0.11316302 0.39541832 0.95200002
-0.1121689 0.39500296 0.95100003
-0.11129365 0.39500296 0.95100003
-0.11041841 0.39500296 0.95100003
-0.10954316 0.39500296 0.95100003
-0.10866792 0.39500296 0.95100003
-0.10779267 0.39500296 0.95100003
-0.10702985 0.39541832 0.95200002
-0.10626519 0.39583367 0.95300007
-0.10527752 0.39541832 0.95200002
-0.10440135 0.39541832 0.95200002
-0.10352518 0.39541832 0.95200002
-0.10264902 0.39541832 0.95200002
-0.10177285 0.39541832 0.95200002
-0.10089669 0.39541832 0.95200002
-0.10002052 0.39541832 0.95200002
-0.099352635 0.39624903 0.95400006
-0.098474629 0.39624903 0.95400006
-0.097596623 0.39624903 0.95400006
-0.096515849 0.39541832 0.95200002
-0.095639683 0.39541832 0.95200002
-0.094962604 0.39624903 0.95400006
-0.094084591 0.39624903 0.95400006
-0.093206584 0.39624903 0.95400006
-0.092328578 0.39624903 0.95400006
-0.091642298 0.39707974 0.95600003
-0.090857387 0.39749509 0.95700002
-0.090070643 0.39791045 0.95800006
-0.089468248 0.39915651 0.96100003
-0.088583797 0.39915651 0.96100003
-0.087790608 0.39957187 0.96200007
-0.086905234 0.39957187 0.96200007
-0.053039722 0.39791045 0.95800006
-0.052158035 0.39791045 0.95800006
-0.05132987 0.3983258 0.95900005
-0.050184239 0.39624903 0.95400006
-0.14047337 0.39920649 0.95900005
-0.13959076 0.39920649 0.95900005
-0.13870814 0.39920649 0.95900005
-0.13768183 0.39879018 0.95800006
-0.13680013 0.39879018 0.95800006
-0.13577656 0.39837393 0.95700002
-0.13461389 0.39754137 0.95500004
-0.13373496 0.39754137 0.95500004
-0.13271691 0.3971251 0.95400006
-0.1318389 0.3971251 0.95400006
-0.1309609 0.3971251 0.95400006
-0.12994654 0.39670882 0.95300007
-0.12906945 0.39670882 0.95300007
-0.12819237 0.39670882 0.95300007
-0.12718168 0.39629257 0.95200002
-0.12630552 0.39629257 0.95200002
-0.12542935 0.39629257 0.95200002
-0.12455319 0.39629257 0.95200002
-0.12367702 0.39629257 0.95200002
-0.12280086 0.39629257 0.95200002
-0.12192468 0.39629257 0.95200002
-0.12104852 0.39629257 0.95200002
-0.12017234 0.39629257 0.95200002
-0.11942149 0.39670882 0.95300007
-0.11854441 0.39670882 0.95300007
-0.11766732 0.39670882 0.95300007
-0.11691278 0.3971251 0.95400006
-0.11603478 0.3971251 0.95400006
-0.11515676 0.3971251 0.95400006
-0.11415897 0.39670882 0.95300007
-0.11328188 0.39670882 0.95300007
-0.11228685 0.39629257 0.95200002
-0.11141068 0.39629257 0.95200002
-0.11053452 0.39629257 0.95200002
-0.10965835 0.39629257 0.95200002
-0.10878218 0.39629257 0.95200002
-0.10790601 0.39629257 0.95200002
-0.10714228 0.39670882 0.95300007
-0.10615368 0.39629257 0.95200002
-0.10527752 0.39629257 0.95200002
-0.10451102 0.39670882 0.95300007
-0.10363393 0.39670882 0.95300007
-0.10264902 0.39629257 0.95200002
-0.10177285 0.39629257 0.95200002
-0.10089669 0.39629257 0.95200002
-0.10002052 0.39629257 0.95200002
-0.099144354 0.39629257 0.95200002
-0.098268189 0.39629257 0.95200002
-0.097392015 0.39629257 0.95200002
-0.096515849 0.39629257 0.95200002
-0.095639683 0.39629257 0.95200002
-0.094763517 0.39629257 0.95200002
-0.093985975 0.39670882 0.95300007
-0.093108885 0.39670882 0.95300007
-0.092231803 0.39670882 0.95300007
-0.091546439 0.39754137 0.95500004
-0.090762451 0.39795765 0.95600003
-0.089976624 0.39837393 0.95700002
-0.089375146 0.39962277 0.96000004
-0.088491619 0.39962277 0.96000004
-0.05633029 0.3971251 0.95400006
-0.055452283 0.3971251 0.95400006
-0.054574277 0.3971251 0.95400006
-0.053696267 0.3971251 0.95400006
-0.052984353 0.39837393 0.95700002
-0.052103586 0.39837393 0.95700002
-0.051169295 0.39795765 0.95600003
-0.050131638 0.39670882 0.95300007
-0.14282271 0.39925277 0.95700002
-0.14076638 0.39841837 0.95500004
-0.13974097 0.39800119 0.95400006
-0.13886297 0.39800119 0.95400006
-0.13856351 0.39966995 0.95800006
-0.13753811 0.39925277 0.95700002
-0.13665734 0.39925277 0.95700002
-0.13563469 0.39883557 0.95600003
-0.13419102 0.39716682 0.95200002
-0.13331485 0.39716682 0.95200002
-0.13243869 0.39716682 0.95200002
-0.13142432 0.39674962 0.95100003
-0.13054907 0.39674962 0.95100003
-0.12967382 0.39674962 0.95100003
-0.12866315 0.39633241 0.95000005
-0.12805785 0.39716682 0.95200002
-0.12718168 0.39716682 0.95200002
-0.12630552 0.39716682 0.95200002
-0.12542935 0.39716682 0.95200002
-0.12429152 0.39633241 0.95000005
-0.12367702 0.39716682 0.95200002
-0.12267186 0.39674962 0.95100003
-0.12192468 0.39716682 0.95200002
-0.12104852 0.39716682 0.95200002
-0.12017234 0.39716682 0.95200002
-0.11942149 0.39758399 0.95300007
-0.11866879 0.39800119 0.95400006
-0.11779079 0.39800119 0.95400006
-0.11691278 0.39800119 0.95400006
-0.11603478 0.39800119 0.95400006
-0.11515676 0.39800119 0.95400006
-0.11427876 0.39800119 0.95400006
-0.11328188 0.39758399 0.95300007
-0.11240479 0.39758399 0.95300007
-0.11141068 0.39716682 0.95200002
-0.11053452 0.39716682 0.95200002
-0.10965835 0.39716682 0.95200002
-0.10878218 0.39716682 0.95200002
-0.10801936 0.39758399 0.95300007
-0.10702985 0.39716682 0.95200002
-0.10615368 0.39716682 0.95200002
-0.1053881 0.39758399 0.95300007
-0.10451102 0.39758399 0.95300007
-0.10363393 0.39758399 0.95300007
-0.10275684 0.39758399 0.95300007
-0.10177285 0.39716682 0.95200002
-0.10089669 0.39716682 0.95200002
-0.10002052 0.39716682 0.95200002
-0.099144354 0.39716682 0.95200002
-0.098268189 0.39716682 0.95200002
-0.097392015 0.39716682 0.95200002
-0.096515849 0.39716682 0.95200002
-0.095639683 0.39716682 0.95200002
-0.094763517 0.39716682 0.95200002
-0.093887351 0.39716682 0.95200002
-0.093011186 0.39716682 0.95200002
-0.09213502 0.39716682 0.95200002
-0.091546439 0.39841837 0.95500004
-0.090762451 0.39883557 0.95600003
-0.089976624 0.39925277 0.95700002
-0.056271244 0.39758399 0.95300007
-0.055452283 0.39800119 0.95400006
-0.054574277 0.39800119 0.95400006
-0.053696267 0.39800119 0.95400006
-0.052652165 0.39674962 0.95100003
-0.051831361 0.39716682 0.95200002
-0.050955195 0.39716682 0.95200002
-0.14252423 0.39929536 0.95500004
-0.14149699 0.39887726 0.95400006
-0.14061898 0.39887726 0.95400006
-0.13944802 0.39804104 0.95200002
-0.13857184 0.39804104 0.95200002
-0.13769569 0.39804104 0.95200002
-0.13681951 0.39804104 0.95200002
-0.13580056 0.39762291 0.95100003
-0.13492531 0.39762291 0.95100003
-0.13405006 0.39762291 0.95100003
-0.13317482 0.39762291 0.95100003
-0.13229957 0.39762291 0.95100003
-0.13142432 0.39762291 0.95100003
-0.1304118 0.39720479 0.95000005
-0.12953748 0.39720479 0.95000005
-0.12866315 0.39720479 0.95000005
-0.12778883 0.39720479 0.95000005
-0.1267809 0.39678672 0.94900006
-0.12590748 0.39678672 0.94900006
-0.12503408 0.39678672 0.94900006
-0.12416068 0.39678672 0.94900006
-0.12328727 0.39678672 0.94900006
-0.12241387 0.39678672 0.94900006
-0.12179662 0.39762291 0.95100003
-0.12079422 0.39720479 0.95000005
-0.12017234 0.39804104 0.95200002
-0.11942149 0.39845914 0.95300007
-0.11854441 0.39845914 0.95300007
-0.11766732 0.39845914 0.95300007
-0.11691278 0.39887726 0.95400006
-0.11603478 0.39887726 0.95400006
-0.11515676 0.39887726 0.95400006
-0.11427876 0.39887726 0.95400006
-0.11328188 0.39845914 0.95300007
-0.11240479 0.39845914 0.95300007
-0.11152771 0.39845914 0.95300007
-0.11065062 0.39845914 0.95300007
-0.10977354 0.39845914 0.95300007
-0.10889645 0.39845914 0.95300007
-0.10801936 0.39845914 0.95300007
-0.10702985 0.39804104 0.95200002
-0.10615368 0.39804104 0.95200002
-0.10527752 0.39804104 0.95200002
-0.10440135 0.39804104 0.95200002
-0.10352518 0.39804104 0.95200002
-0.10254119 0.39762291 0.95100003
-0.10166594 0.39762291 0.95100003
-0.10068472 0.39720479 0.95000005
-0.099915452 0.39762291 0.95100003
-0.098936066 0.39720479 0.95000005
-0.09806174 0.39720479 0.95000005
-0.097187415 0.39720479 0.95000005
-0.096313089 0.39720479 0.95000005
-0.095539227 0.39762291 0.95100003
-0.094663978 0.39762291 0.95100003
-0.093788736 0.39762291 0.95100003
-0.092913486 0.39762291 0.95100003
-0.092038237 0.39762291 0.95100003
-0.091258854 0.39804104 0.95200002
-0.090667509 0.39929536 0.95500004
-0.089882605 0.39971349 0.95600003
-0.055336028 0.39804104 0.95200002
-0.054459862 0.39804104 0.95200002
-0.053020846 0.39385995 0.94200003
-0.0525968 0.39720479 0.95000005
-0.051668029 0.39678672 0.94900006
-0.050634049 0.39553237 0.94600004
-0.14485702 0.39933428 0.95300007
-0.14367777 0.39849624 0.95100003
-0.14220187 0.39682013 0.94700003
-0.14222576 0.39933428 0.95300007
-0.14120035 0.39891529 0.95200002
-0.14032418 0.39891529 0.95200002
-0.13930154 0.39849624 0.95100003
-0.13828073 0.39807719 0.95000005
-0.13740641 0.39807719 0.95000005
-0.13653208 0.39807719 0.95000005
-0.13551494 0.3976582 0.94900006
-0.13464154 0.3976582 0.94900006
-0.13390911 0.39807719 0.95000005
-0.13303478 0.39807719 0.95000005
-0.13216045 0.39807719 0.95000005
-0.13128613 0.39807719 0.95000005
-0.13027452 0.3976582 0.94900006
-0.1294011 0.3976582 0.94900006
-0.1285277 0.3976582 0.94900006
-0.1276543 0.3976582 0.94900006
-0.1267809 0.3976582 0.94900006
-0.12577482 0.39723915 0.94800007
-0.12490233 0.39723915 0.94800007
-0.12402984 0.39723915 0.94800007
-0.12315736 0.39723915 0.94800007
-0.12228487 0.39723915 0.94800007
-0.12154046 0.3976582 0.94900006
-0.12066706 0.3976582 0.94900006
-0.12004612 0.39849624 0.95100003
-0.11929618 0.39891529 0.95200002
-0.11842001 0.39891529 0.95200002
-0.11754385 0.39891529 0.95200002
-0.11679023 0.39933428 0.95300007
-0.11591315 0.39933428 0.95300007
-0.11503606 0.39933428 0.95300007
-0.11415897 0.39933428 0.95300007
-0.11328188 0.39933428 0.95300007
-0.11228685 0.39891529 0.95200002
-0.11141068 0.39891529 0.95200002
-0.11053452 0.39891529 0.95200002
-0.10965835 0.39891529 0.95200002
-0.10878218 0.39891529 0.95200002
-0.10779267 0.39849624 0.95100003
-0.10691743 0.39849624 0.95100003
-0.10604218 0.39849624 0.95100003
-0.10527752 0.39891529 0.95200002
-0.10429168 0.39849624 0.95100003
-0.10341644 0.39849624 0.95100003
-0.10243337 0.39807719 0.95000005
-0.10145214 0.3976582 0.94900006
-0.10068472 0.39807719 0.95000005
-0.099810392 0.39807719 0.95000005
-0.098936066 0.39807719 0.95000005
-0.09795852 0.3976582 0.94900006
-0.097085111 0.3976582 0.94900006
-0.096313089 0.39807719 0.95000005
-0.095438763 0.39807719 0.95000005
-0.094564438 0.39807719 0.95000005
-0.093788736 0.39849624 0.95100003
-0.092815787 0.39807719 0.95000005
-0.091941461 0.39807719 0.95000005
-0.091258854 0.39891529 0.95200002
-0.090382688 0.39891529 0.95200002
-0.08969456 0.39975333 0.95400006
-0.055336028 0.39891529 0.95200002
-0.053830598 0.39430594 0.94100004
-0.053077128 0.39514402 0.94300002
-0.052153882 0.39472499 0.94200003
-0.051286917 0.39472499 0.94200003
-0.050312903 0.39388692 0.94000006
-0.14367777 0.39936957 0.95100003
-0.14265236 0.39894959 0.95000005
-0.1413303 0.39768979 0.94700003
-0.14031042 0.39726982 0.94600004
-0.13929237 0.39684987 0.94500005
-0.13842265 0.39684987 0.94500005
-0.13755293 0.39684987 0.94500005
-0.13668321 0.39684987 0.94500005
-0.13566977 0.39642993 0.94400007
-0.13494375 0.39684987 0.94500005
-0.13393216 0.39642993 0.94400007
-0.13320431 0.39684987 0.94500005
-0.13233459 0.39684987 0.94500005
-0.13160397 0.39726982 0.94600004
-0.13073333 0.39726982 0.94600004
-0.12986268 0.39726982 0.94600004
-0.12899205 0.39726982 0.94600004
-0.12812141 0.39726982 0.94600004
-0.12725076 0.39726982 0.94600004
-0.12638012 0.39726982 0.94600004
-0.12537679 0.39684987 0.94500005
-0.12450707 0.39684987 0.94500005
-0.12363734 0.39684987 0.94500005
-0.12276762 0.39684987 0.94500005
-0.1218979 0.39684987 0.94500005
-0.12115625 0.39726982 0.94600004
-0.12028561 0.39726982 0.94600004
-0.11954119 0.39768979 0.94700003
-0.11917087 0.39936957 0.95100003
-0.11829562 0.39936957 0.95100003
-0.11742038 0.39936957 0.95100003
-0.11666768 0.39978951 0.95200002
-0.11579151 0.39978951 0.95200002
-0.11491535 0.39978951 0.95200002
-0.11403918 0.39978951 0.95200002
-0.11268754 0.3981097 0.94800007
-0.1121689 0.39936957 0.95100003
-0.11129365 0.39936957 0.95100003
-0.11041841 0.39936957 0.95100003
-0.10954316 0.39936957 0.95100003
-0.10866792 0.39936957 0.95100003
-0.10779267 0.39936957 0.95100003
-0.10691743 0.39936957 0.95100003
-0.10604218 0.39936957 0.95100003
-0.10516693 0.39936957 0.95100003
-0.10418202 0.39894959 0.95000005
-0.10330769 0.39894959 0.95000005
-0.10232554 0.39852968 0.94900006
-0.10145214 0.39852968 0.94900006
-0.10057873 0.39852968 0.94900006
-0.099705331 0.39852968 0.94900006
-0.098831922 0.39852968 0.94900006
-0.09795852 0.39852968 0.94900006
-0.097085111 0.39852968 0.94900006
-0.096211709 0.39852968 0.94900006
-0.0953383 0.39852968 0.94900006
-0.094564438 0.39894959 0.95000005
-0.093690112 0.39894959 0.95000005
-0.092815787 0.39894959 0.95000005
-0.091941461 0.39894959 0.95000005
-0.091162995 0.39936957 0.95100003
-0.090382688 0.39978951 0.95200002
-0.089506522 0.39978951 0.95200002
-0.053658985 0.39391026 0.93800002
-0.052964557 0.39517009 0.94100004
-0.051378768 0.38971078 0.92800003
-0.050905801 0.3926504 0.93500006
-0.14352669 0.399822 0.95000005
-0.14190155 0.39771768 0.94500005
-0.14118107 0.39813855 0.94600004
-0.14001378 0.39729685 0.94400007
-0.13885018 0.39645511 0.94200003
-0.13798322 0.39645511 0.94200003
-0.1369707 0.39603424 0.94100004
-0.13624929 0.39645511 0.94200003
-0.13523862 0.39603424 0.94100004
-0.13437256 0.39603424 0.94100004
-0.13379028 0.39687595 0.94300002
-0.13306335 0.39729685 0.94400007
-0.13233459 0.39771768 0.94500005
-0.13146485 0.39771768 0.94500005
-0.13059513 0.39771768 0.94500005
-0.12972541 0.39771768 0.94500005
-0.12885569 0.39771768 0.94500005
-0.12812141 0.39813855 0.94600004
-0.12711625 0.39771768 0.94500005
-0.12624651 0.39771768 0.94500005
-0.12537679 0.39771768 0.94500005
-0.12437531 0.39729685 0.94400007
-0.12350651 0.39729685 0.94400007
-0.12263771 0.39729685 0.94400007
-0.12176891 0.39729685 0.94400007
-0.12102817 0.39771768 0.94500005
-0.12015846 0.39771768 0.94500005
-0.11941496 0.39813855 0.94600004
-0.11866963 0.39855942 0.94700003
-0.11779806 0.39855942 0.94700003
-0.1169265 0.39855942 0.94700003
-0.11605494 0.39855942 0.94700003
-0.11518337 0.39855942 0.94700003
-0.11431181 0.39855942 0.94700003
-0.11344024 0.39855942 0.94700003
-0.11256868 0.39855942 0.94700003
-0.11169711 0.39855942 0.94700003
-0.11082555 0.39855942 0.94700003
-0.10995398 0.39855942 0.94700003
-0.10931279 0.39940116 0.94900006
-0.10843939 0.39940116 0.94900006
-0.10745263 0.39898029 0.94800007
-0.10658015 0.39898029 0.94800007
-0.10570766 0.39898029 0.94800007
-0.10483517 0.39898029 0.94800007
-0.10385302 0.39855942 0.94700003
-0.10287272 0.39813855 0.94600004
-0.10200208 0.39813855 0.94600004
-0.10102452 0.39771768 0.94500005
-0.10026079 0.39813855 0.94600004
-0.099390142 0.39813855 0.94600004
-0.098519497 0.39813855 0.94600004
-0.097648852 0.39813855 0.94600004
-0.096778207 0.39813855 0.94600004
-0.096008942 0.39855942 0.94700003
-0.09513738 0.39855942 0.94700003
-0.094365358 0.39898029 0.94800007
-0.093492873 0.39898029 0.94800007
-0.092620388 0.39898029 0.94800007
-0.091747902 0.39898029 0.94800007
-0.090875417 0.39898029 0.94800007
-0.090097867 0.39940116 0.94900006
-0.089224465 0.39940116 0.94900006
-0.073115893 0.39729685 0.94400007
-0.070434794 0.39687595 0.94300002
-0.069566913 0.39687595 0.94300002
-0.067903072 0.39729685 0.94400007
-0.067105286 0.39771768 0.94500005
-0.066305652 0.39813855 0.94600004
-0.065435007 0.39813855 0.94600004
-0.064564362 0.39813855 0.94600004
-0.063693717 0.39813855 0.94600004
-0.062823072 0.39813855 0.94600004
-0.061952431 0.39813855 0.94600004
-0.061017219 0.39771768 0.94500005
-0.060083844 0.39729685 0.94400007
-0.059089586 0.39645511 0.94200003
-0.058099005 0.39561334 0.94000006
-0.057172995 0.3951925 0.93900007
-0.056128897 0.3939299 0.93600005
-0.055149361 0.39308819 0.93400002
-0.054231636 0.39266729 0.93300003
-0.053258546 0.39182559 0.93100005
-0.052345417 0.39140469 0.93000007
-0.051378768 0.39056298 0.92800003
-0.050470248 0.39014214 0.92700005
-0.14727558 0.39900729 0.94600004
-0.14640494 0.39900729 0.94600004
-0.14553429 0.39900729 0.94600004
-0.143489 0.39816374 0.94400007
-0.14246911 0.39774194 0.94300002
-0.14130092 0.39689836 0.94100004
-0.14043486 0.39689836 0.94100004
-0.13882723 0.39478946 0.93600005
-0.13796578 0.39478946 0.93600005
-0.13710435 0.39478946 0.93600005
-0.13609736 0.39436767 0.93500006
-0.13523683 0.39436767 0.93500006
-0.1343763 0.39436767 0.93500006
-0.13365859 0.39478946 0.93600005
-0.13279714 0.39478946 0.93600005
-0.13207667 0.39521125 0.93700004
-0.13149437 0.3960548 0.93900007
-0.13132575 0.39816374 0.94400007
-0.13045694 0.39816374 0.94400007
-0.12972541 0.3985855 0.94500005
-0.12885569 0.3985855 0.94500005
-0.12798597 0.3985855 0.94500005
-0.12698172 0.39816374 0.94400007
-0.12611292 0.39816374 0.94400007
-0.12524413 0.39816374 0.94400007
-0.12424356 0.39774194 0.94300002
-0.12337568 0.39774194 0.94300002
-0.1225078 0.39774194 0.94300002
-0.12176891 0.39816374 0.94400007
-0.1209001 0.39816374 0.94400007
-0.1200313 0.39816374 0.94400007
-0.11928874 0.3985855 0.94500005
-0.11854432 0.39900729 0.94600004
-0.11767367 0.39900729 0.94600004
-0.11680303 0.39900729 0.94600004
-0.11593238 0.39900729 0.94600004
-0.11506174 0.39900729 0.94600004
-0.11419109 0.39900729 0.94600004
-0.11332045 0.39900729 0.94600004
-0.11244981 0.39900729 0.94600004
-0.11157916 0.39900729 0.94600004
-0.11070852 0.39900729 0.94600004
-0.10995398 0.39942908 0.94700003
-0.10908242 0.39942908 0.94700003
-0.10809658 0.39900729 0.94600004
-0.10733929 0.39942908 0.94700003
-0.10646772 0.39942908 0.94700003
-0.10559615 0.39942908 0.94700003
-0.10450342 0.3985855 0.94500005
-0.1036337 0.3985855 0.94500005
-0.10276397 0.3985855 0.94500005
-0.10189425 0.3985855 0.94500005
-0.10102452 0.3985855 0.94500005
-0.1001548 0.3985855 0.94500005
-0.099285081 0.3985855 0.94500005
-0.098415352 0.3985855 0.94500005
-0.097648852 0.39900729 0.94600004
-0.096778207 0.39900729 0.94600004
-0.096008942 0.39942908 0.94700003
-0.09513738 0.39942908 0.94700003
-0.094265819 0.39942908 0.94700003
-0.093492873 0.39985085 0.94800007
-0.092522688 0.39942908 0.94700003
-0.091651119 0.39942908 0.94700003
-0.090875417 0.39985085 0.94800007
-0.090002932 0.39985085 0.94800007
-0.080405593 0.39985085 0.94800007
-0.079533108 0.39985085 0.94800007
-0.078660622 0.39985085 0.94800007
-0.077788137 0.39985085 0.94800007
-0.076915652 0.39985085 0.94800007
-0.075802527 0.3985855 0.94500005
-0.074932806 0.3985855 0.94500005
-0.073984697 0.39816374 0.94400007
-0.072960988 0.39732015 0.94200003
-0.072017498 0.39689836 0.94100004
-0.07115145 0.39689836 0.94100004
-0.07028541 0.39689836 0.94100004
-0.069419369 0.39689836 0.94100004
-0.068626173 0.39732015 0.94200003
-0.067759216 0.39732015 0.94200003
-0.066892251 0.39732015 0.94200003
-0.06616547 0.39816374 0.94400007
-0.065296665 0.39816374 0.94400007
-0.06442786 0.39816374 0.94400007
-0.063693717 0.39900729 0.94600004
-0.062823072 0.39900729 0.94600004
-0.061952431 0.39900729 0.94600004
-0.061017219 0.3985855 0.94500005
-0.060020197 0.39774194 0.94300002
-0.058901399 0.3960548 0.93900007
-0.057975393 0.39563301 0.93800002
-0.057112109 0.39563301 0.93800002
-0.055948995 0.39352408 0.93300003
-0.055090316 0.39352408 0.93300003
-0.054173511 0.39310232 0.93200004
-0.053144131 0.39183697 0.92900002
-0.052232847 0.39141518 0.92800003
-0.051268041 0.39057162 0.92600006
-0.050415803 0.39057162 0.92600006
-0.14696421 0.39903063 0.94400007
-0.14609541 0.39903063 0.94400007
-0.14538045 0.39945331 0.94500005
-0.14420488 0.39860791 0.94300002
-0.14318499 0.39818522 0.94200003
-0.14216696 0.39776251 0.94100004
-0.1410006 0.3969171 0.93900007
-0.14028563 0.39733979 0.94000006
-0.1385306 0.39480361 0.93400002
-0.13767099 0.39480361 0.93400002
-0.13666491 0.3943809 0.93300003
-0.13580623 0.3943809 0.93300003
-0.13494755 0.3943809 0.93300003
-0.13408887 0.3943809 0.93300003
-0.13337299 0.39480361 0.93400002
-0.13251339 0.39480361 0.93400002
-0.13179475 0.39522627 0.93500006
-0.13121429 0.3960717 0.93700004
-0.13035193 0.3960717 0.93700004
-0.12962776 0.39649439 0.93800002
-0.12890176 0.3969171 0.93900007
-0.12831028 0.39776251 0.94100004
-0.12744422 0.39776251 0.94100004
-0.12657818 0.39776251 0.94100004
-0.12544495 0.3969171 0.93900007
-0.12444808 0.39649439 0.93800002
-0.1235848 0.39649439 0.93800002
-0.12272152 0.39649439 0.93800002
-0.12211806 0.39733979 0.94000006
-0.12125294 0.39733979 0.94000006
-0.12051588 0.39776251 0.94100004
-0.11964984 0.39776251 0.94100004
-0.11891003 0.39818522 0.94200003
-0.11804307 0.39818522 0.94200003
-0.1173005 0.39860791 0.94300002
-0.11643261 0.39860791 0.94300002
-0.11556473 0.39860791 0.94300002
-0.11469685 0.39860791 0.94300002
-0.11382896 0.39860791 0.94300002
-0.11296108 0.39860791 0.94300002
-0.1120932 0.39860791 0.94300002
-0.11122531 0.39860791 0.94300002
-0.11035743 0.39860791 0.94300002
-0.10960566 0.39903063 0.94400007
-0.10862166 0.39860791 0.94300002
-0.10775378 0.39860791 0.94300002
-0.1068859 0.39860791 0.94300002
-0.10601801 0.39860791 0.94300002
-0.10503862 0.39818522 0.94200003
-0.10417166 0.39818522 0.94200003
-0.10319503 0.39776251 0.94100004
-0.10232899 0.39776251 0.94100004
-0.10135512 0.39733979 0.94000006
-0.10049 0.39733979 0.94000006
-0.099730864 0.39776251 0.94100004
-0.098864816 0.39776251 0.94100004
-0.097998776 0.39776251 0.94100004
-0.097545631 0.39945331 0.94500005
-0.096675903 0.39945331 0.94500005
-0.095907561 0.39987603 0.94600004
-0.092424989 0.39987603 0.94600004
-0.079365321 0.39987603 0.94600004
-0.078494675 0.39987603 0.94600004
-0.07762403 0.39987603 0.94600004
-0.076753385 0.39987603 0.94600004
-0.075722307 0.39903063 0.94400007
-0.074774213 0.39860791 0.94300002
-0.073671207 0.39733979 0.94000006
-0.072806083 0.39733979 0.94000006
-0.071864434 0.3969171 0.93900007
-0.071000226 0.3969171 0.93900007
-0.070136026 0.3969171 0.93900007
-0.069271825 0.3969171 0.93900007
-0.068480477 0.39733979 0.94000006
-0.067615353 0.39733979 0.94000006
-0.066750228 0.39733979 0.94000006
-0.065955199 0.39776251 0.94100004
-0.065158322 0.39818522 0.94200003
-0.064291358 0.39818522 0.94200003
-0.063491724 0.39860791 0.94300002
-0.062623844 0.39860791 0.94300002
-0.061755959 0.39860791 0.94300002
-0.060758941 0.39776251 0.94100004
-0.059892897 0.39776251 0.94100004
-0.057584118 0.38804036 0.91800004
-0.056739241 0.38804036 0.91800004
-0.056807674 0.3943809 0.93300003
-0.055889029 0.39395821 0.93200004
-0.054972224 0.39353549 0.93100005
-0.054057255 0.39311278 0.93000007
-0.05302972 0.39184469 0.92700005
-0.052176561 0.39184469 0.92700005
-0.051212672 0.39099926 0.92500007
-0.14751981 0.39905027 0.94200003
-0.14680853 0.39947388 0.94300002
-0.14594065 0.39947388 0.94300002
-0.14507276 0.39947388 0.94300002
-0.14389904 0.39862666 0.94100004
-0.14288099 0.39820302 0.94000006
-0.14186479 0.39777941 0.93900007
-0.14085042 0.39735577 0.93800002
-0.14013639 0.39777941 0.93900007
-0.13823396 0.39481407 0.93200004
-0.136934 0.39354321 0.92900002
-0.136079 0.39354321 0.92900002
-0.135224 0.39354321 0.92900002
-0.13465828 0.39439043 0.93100005
-0.13380145 0.39439043 0.93100005
-0.1330874 0.39481407 0.93200004
-0.13237152 0.39523768 0.93300003
-0.13179475 0.3960849 0.93500006
-0.13107426 0.39650854 0.93600005
-0.13021281 0.39650854 0.93600005
-0.12948957 0.39693218 0.93700004
-0.12862721 0.39693218 0.93700004
-0.12776485 0.39693218 0.93700004
-0.12690249 0.39693218 0.93700004
-0.12604013 0.39693218 0.93700004
-0.12517777 0.39693218 0.93700004
-0.12431541 0.39693218 0.93700004
-0.12345304 0.39693218 0.93700004
-0.12259068 0.39693218 0.93700004
-0.12172832 0.39693218 0.93700004
-0.12099496 0.39735577 0.93800002
-0.12038781 0.39820302 0.94000006
-0.11952269 0.39820302 0.94000006
-0.1187838 0.39862666 0.94100004
-0.11791776 0.39862666 0.94100004
-0.11717611 0.39905027 0.94200003
-0.11630914 0.39905027 0.94200003
-0.11544218 0.39905027 0.94200003
-0.11457521 0.39905027 0.94200003
-0.11370825 0.39905027 0.94200003
-0.11284129 0.39905027 0.94200003
-0.11197433 0.39905027 0.94200003
-0.11110736 0.39905027 0.94200003
-0.1102404 0.39905027 0.94200003
-0.10948955 0.39947388 0.94300002
-0.10850648 0.39905027 0.94200003
-0.10763951 0.39905027 0.94200003
-0.10677255 0.39905027 0.94200003
-0.10579316 0.39862666 0.94100004
-0.10492712 0.39862666 0.94100004
-0.10395049 0.39820302 0.94000006
-0.10308537 0.39820302 0.94000006
-0.1021115 0.39777941 0.93900007
-0.10113948 0.39735577 0.93800002
-0.10027619 0.39735577 0.93800002
-0.099518895 0.39777941 0.93900007
-0.098654695 0.39777941 0.93900007
-0.097790495 0.39777941 0.93900007
-0.097029515 0.39820302 0.94000006
-0.096266694 0.39862666 0.94100004
-0.095400646 0.39862666 0.94100004
-0.094635069 0.39905027 0.94200003
-0.093768105 0.39905027 0.94200003
-0.09290114 0.39905027 0.94200003
-0.083010562 0.39735577 0.93800002
-0.082147278 0.39735577 0.93800002
-0.076591112 0.39989752 0.94400007
-0.075561881 0.39905027 0.94200003
-0.074060574 0.39566129 0.93400002
-0.073514462 0.39735577 0.93800002
-0.072651178 0.39735577 0.93800002
-0.071711369 0.39693218 0.93700004
-0.070244104 0.39354321 0.92900002
-0.069986641 0.39693218 0.93700004
-0.068607874 0.39396682 0.93000007
-0.068261921 0.39693218 0.93700004
-0.067471489 0.39735577 0.93800002
-0.066608205 0.39735577 0.93800002
-0.065815017 0.39777941 0.93900007
-0.065019988 0.39820302 0.94000006
-0.064154863 0.39820302 0.94000006
-0.06335707 0.39862666 0.94100004
-0.062491026 0.39862666 0.94100004
-0.061559495 0.39820302 0.94000006
-0.060694374 0.39820302 0.94000006
-0.059765603 0.39777941 0.93900007
-0.057584118 0.38888338 0.91800004
-0.056739241 0.38888338 0.91800004
-0.055955254 0.38930699 0.91900003
-0.055169426 0.3897306 0.92000002
-0.054322708 0.3897306 0.92000002
-0.053417869 0.38930699 0.91900003
-0.05251487 0.38888338 0.91800004
-0.051613707 0.38845977 0.91700006
-0.050825119 0.38888338 0.91800004
-0.14838678 0.39991534 0.94200003
-0.14751981 0.39991534 0.94200003
-0.1461858 0.39864171 0.93900007
-0.14516684 0.39821717 0.93800002
-0.14430356 0.39821717 0.93800002
-0.14359319 0.39864171 0.93900007
-0.141665 0.39566994 0.93200004
-0.14005181 0.39354727 0.92700005
-0.1390485 0.3931227 0.92600006
-0.13774854 0.39184907 0.92300004
-0.1370474 0.39227363 0.92400002
-0.1360496 0.39184907 0.92300004
-0.13520011 0.39184907 0.92300004
-0.13435064 0.39184907 0.92300004
-0.1336458 0.39227363 0.92400002
-0.133514 0.39439633 0.92900002
-0.1328018 0.39482084 0.93000007
-0.13208777 0.3952454 0.93100005
-0.13151284 0.39609447 0.93300003
-0.1307942 0.39651901 0.93400002
-0.12993459 0.39651901 0.93400002
-0.12921318 0.39694354 0.93500006
-0.12848994 0.3973681 0.93600005
-0.12762851 0.3973681 0.93600005
-0.12676705 0.3973681 0.93600005
-0.12590562 0.3973681 0.93600005
-0.12504418 0.3973681 0.93600005
-0.12405006 0.39694354 0.93500006
-0.12332129 0.3973681 0.93600005
-0.12245985 0.3973681 0.93600005
-0.12159841 0.3973681 0.93600005
-0.12086596 0.39779264 0.93700004
-0.12013167 0.39821717 0.93800002
-0.11926839 0.39821717 0.93800002
-0.11865757 0.39906624 0.94000006
-0.11779245 0.39906624 0.94000006
-0.11705171 0.39949077 0.94100004
-0.11618567 0.39949077 0.94100004
-0.11531963 0.39949077 0.94100004
-0.11445358 0.39949077 0.94100004
-0.11358754 0.39949077 0.94100004
-0.1127215 0.39949077 0.94100004
-0.11185546 0.39949077 0.94100004
-0.11098941 0.39949077 0.94100004
-0.11012337 0.39949077 0.94100004
-0.10925733 0.39949077 0.94100004
-0.1082761 0.39906624 0.94000006
-0.10741098 0.39906624 0.94000006
-0.10654586 0.39906624 0.94000006
-0.10568073 0.39906624 0.94000006
-0.10481561 0.39906624 0.94000006
-0.10372932 0.39821717 0.93800002
-0.10286604 0.39821717 0.93800002
-0.10189401 0.39779264 0.93700004
-0.10103165 0.39779264 0.93700004
-0.10016929 0.39779264 0.93700004
-0.099306926 0.39779264 0.93700004
-0.098549627 0.39821717 0.93800002
-0.09768635 0.39821717 0.93800002
-0.096823066 0.39821717 0.93800002
-0.096062087 0.39864171 0.93900007
-0.095299266 0.39906624 0.94000006
-0.094434142 0.39906624 0.94000006
-0.093569025 0.39906624 0.94000006
-0.092703901 0.39906624 0.94000006
-0.091838777 0.39906624 0.94000006
-0.090876877 0.39864171 0.93900007
-0.090108536 0.39906624 0.94000006
-0.08943329 0.39991534 0.94200003
-0.088566326 0.39991534 0.94200003
-0.087420069 0.39864171 0.93900007
-0.08646369 0.39821717 0.93800002
-0.085600406 0.39821717 0.93800002
-0.084646784 0.39779264 0.93700004
-0.083695009 0.3973681 0.93600005
-0.082833566 0.3973681 0.93600005
-0.081884548 0.39694354 0.93500006
-0.081110686 0.3973681 0.93600005
-0.080249242 0.3973681 0.93600005
-0.079302989 0.39694354 0.93500006
-0.078442469 0.39694354 0.93500006
-0.07758195 0.39694354 0.93500006
-0.076721422 0.39694354 0.93500006
-0.075698629 0.39609447 0.93300003
-0.07483995 0.39609447 0.93300003
-0.073664099 0.39439633 0.92900002
-0.0728091 0.39439633 0.92900002
-0.071876645 0.39397177 0.92800003
-0.070946038 0.39354727 0.92700005
-0.070092879 0.39354727 0.92700005
-0.069239721 0.39354727 0.92700005
-0.068460338 0.39397177 0.92800003
-0.067606255 0.39397177 0.92800003
-0.066824108 0.39439633 0.92900002
-0.066182144 0.39566994 0.93200004
-0.065324381 0.39566994 0.93200004
-0.064535789 0.39609447 0.93300003
-0.063745365 0.39651901 0.93400002
-0.06281843 0.39609447 0.93300003
-0.062026165 0.39651901 0.93400002
-0.061559495 0.39906624 0.94000006
-0.060694374 0.39906624 0.94000006
-0.059765603 0.39864171 0.93900007
-0.057521392 0.38930187 0.91700006
-0.056677435 0.38930187 0.91700006
-0.055894367 0.3897264 0.91800004
-0.055049494 0.3897264 0.91800004
-0.054145571 0.38930187 0.91700006
-0.053243492 0.38887733 0.91600007
-0.052400459 0.38887733 0.91600007
-0.051557425 0.38887733 0.91600007
-0.050714388 0.38887733 0.91600007
-0.1472066 0.39992946 0.94000006
-0.14603013 0.39907855 0.93800002
-0.14501208 0.39865309 0.93700004
-0.14338051 0.39652583 0.93200004
-0.14236984 0.39610034 0.93100005
-0.141361 0.39567488 0.93000007
-0.13990074 0.39397305 0.92600006
-0.13889834 0.39354759 0.92500007
-0.13774854 0.39269668 0.92300004
-0.13689907 0.39269668 0.92300004
-0.1359022 0.39227125 0.92200005
-0.13505363 0.39227125 0.92200005
-0.13420509 0.39227125 0.92200005
-0.13350116 0.39269668 0.92300004
-0.13250796 0.39227125 0.92200005
-0.13180222 0.39269668 0.92300004
-0.13123649 0.39354759 0.92500007
-0.13038518 0.39354759 0.92500007
-0.12967388 0.39397305 0.92600006
-0.12909989 0.39482397 0.92800003
-0.1285222 0.39567488 0.93000007
-0.12766629 0.39567488 0.93000007
-0.12681037 0.39567488 0.93000007
-0.12608989 0.39610034 0.93100005
-0.12523304 0.39610034 0.93100005
-0.12437621 0.39610034 0.93100005
-0.12365204 0.39652583 0.93200004
-0.12279428 0.39652583 0.93200004
-0.12193652 0.39652583 0.93200004
-0.12133858 0.39737672 0.93400002
-0.12047899 0.39737672 0.93400002
-0.11974746 0.39780217 0.93500006
-0.11888694 0.39780217 0.93500006
-0.11827888 0.39865309 0.93700004
-0.11766714 0.39950401 0.93900007
-0.11692733 0.39992946 0.94000006
-0.1160622 0.39992946 0.94000006
-0.11519708 0.39992946 0.94000006
-0.11433196 0.39992946 0.94000006
-0.11346684 0.39992946 0.94000006
-0.11260171 0.39992946 0.94000006
-0.11173659 0.39992946 0.94000006
-0.11087147 0.39992946 0.94000006
-0.11000635 0.39992946 0.94000006
-0.10914122 0.39992946 0.94000006
-0.10816091 0.39950401 0.93900007
-0.10729671 0.39950401 0.93900007
-0.10631917 0.39907855 0.93800002
-0.10556831 0.39950401 0.93900007
-0.1045926 0.39907855 0.93800002
-0.10361873 0.39865309 0.93700004
-0.10264671 0.39822763 0.93600005
-0.10167652 0.39780217 0.93500006
-0.100816 0.39780217 0.93500006
-0.099955484 0.39780217 0.93500006
-0.099094965 0.39780217 0.93500006
-0.098339505 0.39822763 0.93600005
-0.097478062 0.39822763 0.93600005
-0.096616626 0.39822763 0.93600005
-0.095959783 0.39907855 0.93800002
-0.095096506 0.39907855 0.93800002
-0.094333686 0.39950401 0.93900007
-0.093469478 0.39950401 0.93900007
-0.092506662 0.39907855 0.93800002
-0.091643378 0.39907855 0.93800002
-0.090780094 0.39907855 0.93800002
-0.09001267 0.39950401 0.93900007
-0.089053534 0.39907855 0.93800002
-0.08819025 0.39907855 0.93800002
-0.087233871 0.39865309 0.93700004
-0.086279333 0.39822763 0.93600005
-0.085417889 0.39822763 0.93600005
-0.084466115 0.39780217 0.93500006
-0.083516173 0.39737672 0.93400002
-0.082568072 0.39695126 0.93300003
-0.081709392 0.39695126 0.93300003
-0.080850713 0.39695126 0.93300003
-0.080077775 0.39737672 0.93400002
-0.079133347 0.39695126 0.93300003
-0.078274667 0.39695126 0.93300003
-0.077415988 0.39695126 0.93300003
-0.076557308 0.39695126 0.93300003
-0.0756175 0.39652583 0.93200004
-0.074599311 0.39567488 0.93000007
-0.073584802 0.39482397 0.92800003
-0.072652355 0.39439854 0.92700005
-0.07172174 0.39397305 0.92600006
-0.070792973 0.39354759 0.92500007
-0.069941655 0.39354759 0.92500007
-0.069165029 0.39397305 0.92600006
-0.068312794 0.39397305 0.92600006
-0.067460552 0.39397305 0.92600006
-0.06675218 0.39482397 0.92800003
-0.065898098 0.39482397 0.92800003
-0.065044023 0.39482397 0.92800003
-0.064259112 0.39524946 0.92900002
-0.063404113 0.39524946 0.92900002
-0.062549114 0.39524946 0.92900002
-0.061162841 0.39184579 0.92100006
-0.060249716 0.3914203 0.92000002
-0.059209298 0.39014396 0.91700006
